ply
format ascii 1.0
element vertex 1262
property float x
property float y
property float z
property uchar red
property uchar green
property uchar blue
end_header
5.878242 -0.314657 6.628504 106 91 94
5.852062 -0.288844 6.658986 44 25 29
5.802351 -0.243319 6.709359 26 23 32
5.881863 -0.318264 6.624214 99 90 93
5.801151 -0.242360 6.710260 32 29 36
5.864629 -0.301168 6.644499 110 95 98
5.859054 -0.295710 6.650905 39 21 33
5.857895 -0.294552 6.652289 41 24 32
5.852788 -0.289555 6.658151 83 66 72
5.867092 -0.303598 6.641628 106 85 90
5.878762 -0.315185 6.627871 100 86 86
5.865274 -0.301828 6.643697 89 73 76
5.865143 -0.301685 6.643878 91 75 78
5.872067 -0.308517 6.635806 39 26 33
5.872839 -0.309280 6.634905 76 60 70
5.853921 -0.290664 6.656852 32 16 29
5.853921 -0.290664 6.656852 32 16 29
5.880096 -0.316468 6.626389 60 45 50
5.882159 -0.318552 6.623883 103 97 99
5.884971 -0.321155 6.620984 60 54 56
5.860714 -0.297317 6.649040 39 22 32
5.872227 -0.308624 6.635734 31 18 27
5.865572 -0.302049 6.643508 39 22 32
5.865572 -0.302049 6.643508 39 22 32
5.852398 -0.289155 6.658644 91 74 80
5.853273 -0.290032 6.657591 87 70 76
5.813337 -0.251956 6.701444 80 53 32
5.853575 -0.290324 6.657256 59 39 41
5.868136 -0.304596 6.640483 89 70 72
5.862948 -0.299510 6.646461 92 75 85
5.869259 -0.305716 6.639150 89 78 82
5.881067 -0.317374 6.625375 90 72 72
5.865540 -0.302047 6.643482 72 55 63
5.867284 -0.303748 6.641495 56 37 41
5.867284 -0.303748 6.641495 56 37 41
5.808038 -0.247761 6.705325 105 83 85
5.808038 -0.247761 6.705325 105 83 85
5.866232 -0.302734 6.642666 52 35 43
5.867336 -0.303840 6.641344 102 80 82
5.882593 -0.318865 6.623632 57 48 49
5.882593 -0.318865 6.623632 57 48 49
5.868368 -0.304820 6.640225 58 36 38
5.869755 -0.306199 6.638583 82 73 76
5.872164 -0.308598 6.635730 111 96 99
5.868689 -0.305155 6.639812 104 90 90
5.879558 -0.315858 6.627194 106 96 95
5.858156 -0.294818 6.651970 106 89 95
5.851334 -0.288144 6.659801 66 49 57
5.861444 -0.297996 6.648281 65 48 56
5.861444 -0.297996 6.648281 65 48 56
5.870934 -0.307361 6.637216 104 94 95
5.876861 -0.313201 6.630326 101 86 93
5.875010 -0.311389 6.632452 65 48 58
5.852008 -0.288791 6.659056 57 38 44
5.852008 -0.288791 6.659056 57 38 44
5.882241 -0.318482 6.624118 105 91 91
5.862803 -0.299374 6.646616 109 92 102
5.862819 -0.299387 6.646603 109 92 102
5.853287 -0.290039 6.657593 100 79 84
5.854056 -0.290793 6.656710 61 41 42
5.867375 -0.303845 6.641373 63 43 45
5.881244 -0.317499 6.625278 100 80 81
5.852524 -0.289303 6.658447 103 82 89
5.812349 -0.251177 6.702161 114 87 76
5.851556 -0.288365 6.659540 112 95 101
5.806262 -0.246319 6.706707 106 91 94
5.877506 -0.313834 6.629582 98 83 90
5.881528 -0.317794 6.624918 52 32 33
5.882212 -0.318465 6.624131 66 54 56
5.876863 -0.313104 6.630542 44 27 37
5.813334 -0.251946 6.701461 32 13 9
5.813228 -0.251871 6.701521 110 79 51
5.873224 -0.309599 6.634596 38 22 32
5.880275 -0.316549 6.626397 38 24 24
5.853865 -0.290602 6.656936 51 32 34
5.871479 -0.307895 6.636592 47 35 37
5.871479 -0.307895 6.636592 47 35 37
5.811332 -0.250346 6.702963 55 42 49
5.868042 -0.304506 6.640591 46 27 31
5.853074 -0.289841 6.657816 45 26 32
5.879855 -0.316107 6.626947 46 35 39
5.879855 -0.316107 6.626947 46 35 39
5.870339 -0.306727 6.638012 35 24 30
5.875363 -0.311700 6.632125 34 17 27
5.868998 -0.305428 6.639525 49 37 39
5.805263 -0.245503 6.707495 75 60 63
5.811954 -0.250863 6.702454 26 13 20
5.861269 -0.297845 6.648439 33 15 27
5.878324 -0.314622 6.628674 54 38 48
5.882037 -0.318274 6.624375 108 96 96
5.881328 -0.317561 6.625229 108 97 95
5.858330 -0.294977 6.651800 110 95 98
5.874003 -0.310362 6.633700 108 93 96
5.881708 -0.317927 6.624810 78 68 69
5.865960 -0.302453 6.643016 109 94 97
5.877148 -0.313443 6.630085 101 86 91
5.880814 -0.317039 6.625864 69 59 60
5.812703 -0.251427 6.701966 99 46 15
5.878469 -0.314740 6.628561 89 76 83
5.872454 -0.308837 6.635501 110 100 101
5.870192 -0.306596 6.638155 112 102 103
5.867792 -0.304226 6.640958 114 102 104
5.861691 -0.298272 6.647926 102 87 94
5.853254 -0.290002 6.657646 114 102 104
5.859863 -0.296480 6.650032 107 95 97
5.857858 -0.294533 6.652301 118 103 106
5.862939 -0.299490 6.646501 112 97 100
5.878854 -0.315089 6.628182 64 53 57
5.866477 -0.302939 6.642469 127 115 117
5.878092 -0.314358 6.629022 64 52 56
5.851986 -0.288772 6.659078 125 110 113
5.860247 -0.296849 6.649608 128 116 120
5.852635 -0.289397 6.658358 116 101 104
5.870964 -0.307355 6.637264 76 64 66
5.871354 -0.307727 6.636839 72 60 62
5.804009 -0.244511 6.708411 56 43 50
5.799059 -0.240589 6.712045 93 90 97
5.867065 -0.303528 6.641767 72 60 62
5.868316 -0.304741 6.640356 82 70 72
5.856703 -0.293390 6.653655 70 55 58
5.857302 -0.293955 6.653017 79 64 67
5.854127 -0.290865 6.656625 88 76 78
5.853168 -0.289925 6.657731 86 74 76
5.798613 -0.240225 6.712394 34 33 39
5.798613 -0.240225 6.712394 34 33 39
5.797092 -0.239015 6.713521 97 96 104
5.811285 -0.250289 6.703042 28 15 24
5.810598 -0.249727 6.703585 92 62 36
5.810092 -0.249332 6.703945 102 72 46
5.807291 -0.247092 6.706046 123 72 68
5.812944 -0.251604 6.701818 86 50 26
5.812842 -0.251530 6.701878 84 47 18
5.803383 -0.243957 6.708998 91 78 85
5.797303 -0.239121 6.713501 109 107 118
5.812167 -0.250987 6.702392 52 16 18
5.820813 -0.257974 6.695735 48 43 50
5.807021 -0.246845 6.706315 45 24 21
5.820288 -0.257539 6.696160 25 20 27
5.803373 -0.243899 6.709117 106 96 97
5.801566 -0.242478 6.710417 28 28 40
5.882667 -0.318483 6.624561 105 96 97
5.795171 -0.237389 6.715153 97 95 98
5.811641 -0.250547 6.702831 81 59 62
5.811641 -0.250547 6.702831 81 59 62
5.796227 -0.238207 6.714421 103 97 107
5.794013 -0.236477 6.715989 108 95 105
5.794449 -0.236784 6.715755 108 42 56
5.793726 -0.236211 6.716285 81 35 48
5.796690 -0.238550 6.714137 109 107 118
5.811302 -0.250236 6.703171 71 61 70
5.793122 -0.235712 6.716774 98 35 52
5.793122 -0.235712 6.716774 98 35 52
5.794916 -0.237114 6.715503 69 66 75
5.819880 -0.257245 6.696398 120 115 122
5.819880 -0.257245 6.696398 120 115 122
5.795479 -0.237525 6.715169 64 63 71
5.795391 -0.237456 6.715230 103 102 110
2.867206 -0.119284 4.537794 25 15 16
2.867105 -0.119235 4.537798 22 8 5
2.868685 -0.119979 4.537757 11 7 6
2.868944 -0.120177 4.537584 16 7 8
2.867218 -0.119280 4.537815 111 71 69
2.868604 -0.119907 4.537832 13 7 7
2.868877 -0.120083 4.537720 15 11 12
2.868574 -0.119881 4.537859 16 10 10
2.868574 -0.119881 4.537859 16 10 10
2.868361 -0.119745 4.537944 12 3 4
2.867267 -0.119338 4.537731 116 73 67
2.867174 -0.119294 4.537733 131 81 80
2.867852 -0.119530 4.537901 12 3 4
2.867869 -0.119574 4.537821 60 50 51
2.868295 -0.119668 4.538045 16 10 10
2.867893 -0.119592 4.537806 22 13 14
2.868292 -0.119672 4.538033 57 51 51
2.868330 -0.119751 4.537897 48 39 40
2.867691 -0.119441 4.537931 15 5 6
2.867691 -0.119441 4.537931 15 5 6
2.867725 -0.119483 4.537874 29 18 22
2.868271 -0.119630 4.538105 73 67 67
2.868271 -0.119630 4.538105 73 67 67
2.867522 -0.119370 4.537918 98 77 76
2.868428 -0.119745 4.538008 83 79 78
2.868099 -0.119481 4.538257 9 3 3
2.867748 -0.119507 4.537842 18 8 9
2.867593 -0.119420 4.537877 102 59 43
2.868295 -0.119637 4.538112 40 36 35
2.868024 -0.119465 4.538215 41 32 33
2.868122 -0.119485 4.538270 66 62 63
2.867712 -0.119506 4.537807 94 27 8
2.867411 -0.119508 4.537497 82 76 78
2.867411 -0.119508 4.537497 82 76 78
2.867244 -0.119584 4.537158 25 21 22
2.867795 -0.119259 4.538437 14 5 6
2.868010 -0.119476 4.538175 68 59 60
2.867768 -0.119381 4.538137 86 72 71
2.867895 -0.119388 4.538252 74 64 65
2.867751 -0.119392 4.538095 100 88 88
2.867890 -0.119463 4.538080 13 4 5
2.867586 -0.119633 4.537393 91 84 91
2.867833 -0.119365 4.538239 17 11 11
2.867659 -0.119348 4.538097 49 39 40
2.867659 -0.119348 4.538097 49 39 40
2.867594 -0.119554 4.537573 92 69 63
2.867647 -0.119764 4.537162 93 77 78
2.867660 -0.119480 4.537802 99 73 60
2.867621 -0.119481 4.537760 22 6 6
2.867673 -0.119403 4.537989 55 55 45
2.867455 -0.119268 4.538063 114 80 53
2.867623 -0.119527 4.537661 59 0 4
2.867711 -0.119822 4.537097 47 31 32
2.867749 -0.119633 4.537555 65 0 6
2.867720 -0.119873 4.536993 86 72 72
2.867756 -0.119848 4.537083 66 50 51
2.867756 -0.119848 4.537083 66 50 51
2.868314 -0.120688 4.535789 13 11 16
2.867787 -0.119896 4.537010 96 80 81
2.867866 -0.120214 4.536386 21 15 17
2.867616 -0.119519 4.537670 96 26 34
2.867895 -0.120040 4.536798 53 38 41
2.868009 -0.120128 4.536720 97 83 83
2.867953 -0.120091 4.536746 93 81 83
2.867703 -0.119510 4.537779 34 0 1
2.867920 -0.119954 4.537016 80 64 49
2.868110 -0.120227 4.536604 17 7 8
2.867725 -0.119532 4.537753 83 44 47
2.868246 -0.120638 4.535833 91 20 26
2.867311 -0.118924 4.538678 93 84 89
2.868096 -0.120373 4.536267 42 42 18
2.868258 -0.120697 4.535714 88 12 16
2.867712 -0.119508 4.537791 55 43 45
2.868329 -0.120730 4.535712 87 15 19
2.867110 -0.118762 4.538831 12 7 11
2.867235 -0.118893 4.538667 11 9 10
2.867303 -0.118963 4.538583 60 63 70
2.867931 -0.119855 4.537244 207 160 166
2.868090 -0.120401 4.536200 180 190 202
2.867545 -0.119303 4.538075 62 65 74
2.868068 -0.120173 4.536679 89 93 104
2.868160 -0.120506 4.536037 168 180 194
2.867455 -0.119160 4.538302 47 51 60
2.867455 -0.119160 4.538302 47 51 60
2.867289 -0.119023 4.538435 55 59 68
2.867511 -0.119290 4.538068 75 63 73
2.868016 -0.120095 4.536801 122 126 137
2.868016 -0.120095 4.536801 122 126 137
2.867739 -0.119615 4.537580 71 74 83
2.867645 -0.119499 4.537740 65 68 77
2.867467 -0.119247 4.538117 64 67 76
2.867923 -0.120036 4.536837 105 109 120
2.867923 -0.120036 4.536837 105 109 120
2.867887 -0.119937 4.537019 82 86 97
2.867906 -0.119808 4.537326 71 74 83
2.867906 -0.119808 4.537326 71 74 83
2.867929 -0.119883 4.537182 158 155 164
2.867929 -0.119883 4.537182 158 155 164
2.867857 -0.119807 4.537275 76 79 88
2.867906 -0.119816 4.537303 79 82 91
2.867906 -0.119816 4.537303 79 82 91
2.867673 -0.119540 4.537681 69 72 81
2.867673 -0.119540 4.537681 69 72 81
2.867634 -0.119412 4.537927 64 67 76
2.867576 -0.119294 4.538128 57 61 70
2.867634 -0.119408 4.537934 63 66 75
2.867565 -0.119360 4.537969 63 66 75
2.867936 -0.120079 4.536755 118 125 135
2.867724 -0.119500 4.537823 64 67 76
2.867724 -0.119500 4.537823 64 67 76
2.867897 -0.120320 4.536188 81 91 103
2.867897 -0.120320 4.536188 81 91 103
2.867869 -0.119774 4.537362 111 114 123
2.867754 -0.120049 4.536641 147 153 165
2.867314 -0.119869 4.536597 95 102 118
2.867258 -0.119803 4.536685 184 192 205
2.867258 -0.119803 4.536685 184 192 205
2.867423 -0.119815 4.536825 181 129 133
2.867609 -0.119438 4.537845 56 63 73
2.867638 -0.119556 4.537615 77 67 76
2.867410 -0.119739 4.536981 127 131 142
2.867728 -0.119823 4.537117 74 74 84
2.867707 -0.119631 4.537520 69 64 71
2.867447 -0.119671 4.537166 76 79 88
2.867618 -0.119747 4.537175 158 158 168
2.867165 -0.119722 4.536772 78 84 96
2.867375 -0.119538 4.537388 63 57 71
2.867447 -0.119583 4.537364 76 76 86
2.867447 -0.119583 4.537364 76 76 86
2.867631 -0.119777 4.537121 68 68 80
2.867459 -0.119750 4.537007 112 116 127
2.867240 -0.119578 4.537164 101 105 116
2.867285 -0.119654 4.537044 103 110 120
2.867448 -0.119596 4.537335 24 27 36
2.867614 -0.119680 4.537317 66 69 78
2.867318 -0.119584 4.537229 69 73 82
2.867629 -0.119702 4.537285 127 130 139
2.866790 -0.119443 4.537008 93 99 111
2.867429 -0.119571 4.537371 18 21 30
2.867726 -0.119542 4.537738 186 192 204
2.867435 -0.119538 4.537450 140 143 152
2.867515 -0.119617 4.537357 24 27 34
2.867712 -0.119604 4.537586 56 63 71
2.867712 -0.119604 4.537586 56 63 71
2.867525 -0.119613 4.537376 50 53 62
2.867720 -0.119560 4.537690 67 73 85
2.866876 -0.119395 4.537201 121 127 139
2.866876 -0.119395 4.537201 121 127 139
2.867504 -0.119388 4.537852 49 55 67
2.867648 -0.119528 4.537689 56 60 69
1.254537 0.068100 3.582486 10 1 4
1.254506 0.068122 3.582499 101 92 95
1.254752 0.067914 3.582297 103 94 97
1.255002 0.067702 3.582088 100 94 98
1.255108 0.067609 3.581992 5 0 3
1.255108 0.067609 3.581992 5 0 3
1.255225 0.067514 3.581909 53 44 47
1.255246 0.067499 3.581900 87 78 83
1.255358 0.067398 3.581792 6 0 0
1.255358 0.067398 3.581792 6 0 0
1.255286 0.067463 3.581860 95 86 89
1.255162 0.067582 3.582004 81 76 82
1.255162 0.067582 3.582004 81 76 82
1.255433 0.067332 3.581722 90 84 86
1.255315 0.067445 3.581856 10 4 6
1.255355 0.067404 3.581803 98 92 94
1.255390 0.067378 3.581784 97 91 93
1.197559 -0.050016 2.588262 124 106 92
1.197672 -0.050080 2.588277 117 94 80
1.196178 -0.048439 2.590804 144 134 132
1.196690 -0.048967 2.590078 182 77 73
1.196647 -0.048909 2.590184 209 164 161
1.196647 -0.048909 2.590184 209 164 161
1.196451 -0.048716 2.590432 169 140 145
1.196555 -0.048811 2.590324 143 61 65
1.199341 -0.051574 2.586702 20 23 28
1.197676 -0.049938 2.588818 53 56 65
1.198775 -0.051012 2.587446 97 97 107
1.196501 -0.048757 2.590391 135 53 55
1.196646 -0.048900 2.590208 187 151 151
1.196646 -0.048900 2.590208 187 151 151
1.196646 -0.048900 2.590208 187 151 151
1.198914 -0.051153 2.587254 55 42 49
1.197864 -0.050123 2.588579 48 51 60
1.196641 -0.048888 2.590238 154 58 62
1.196641 -0.048888 2.590238 154 58 62
1.199155 -0.051388 2.586951 58 58 66
1.198107 -0.050360 2.588276 49 49 57
1.198107 -0.050360 2.588276 49 49 57
1.199103 -0.051343 2.586999 41 41 49
1.197583 -0.049845 2.588941 88 91 100
1.197583 -0.049845 2.588941 88 91 100
1.197483 -0.049740 2.589090 54 57 66
1.198553 -0.050801 2.587705 47 47 55
1.197046 -0.049296 2.589692 46 53 63
1.197099 -0.049354 2.589604 173 180 190
1.198324 -0.050567 2.588023 113 120 126
1.198979 -0.051222 2.587150 45 45 53
1.198979 -0.051222 2.587150 45 45 53
1.196977 -0.049230 2.589772 163 170 180
1.197215 -0.049469 2.589454 176 180 189
1.197215 -0.049469 2.589454 176 180 189
1.197085 -0.049335 2.589637 49 53 64
1.196647 -0.048887 2.590250 188 152 164
1.196574 -0.048809 2.590364 158 143 150
1.196574 -0.048809 2.590364 158 143 150
1.196614 -0.048852 2.590299 146 46 56
1.197051 -0.049304 2.589675 98 102 113
1.198554 -0.050802 2.587698 44 44 54
1.198554 -0.050802 2.587698 44 44 54
1.197641 -0.049890 2.588905 86 89 98
1.197152 -0.049397 2.589566 51 55 66
1.198063 -0.050308 2.588360 58 58 66
1.197712 -0.049961 2.588810 91 94 103
1.196641 -0.048869 2.590298 186 151 155
1.196606 -0.048828 2.590362 164 145 149
1.198819 -0.051061 2.587366 42 42 50
1.198819 -0.051061 2.587366 42 42 50
1.196717 -0.048939 2.590218 113 38 42
1.196717 -0.048939 2.590218 113 38 42
1.198682 -0.050926 2.587539 131 131 141
1.197128 -0.049361 2.589635 167 171 182
1.197128 -0.049361 2.589635 167 171 182
1.197222 -0.049457 2.589504 45 49 58
1.197081 -0.049310 2.589712 173 180 190
1.196679 -0.048886 2.590314 168 141 146
1.197151 -0.049374 2.589641 64 71 81
1.197151 -0.049374 2.589641 64 71 81
1.197144 -0.049371 2.589633 176 180 191
1.197144 -0.049371 2.589633 176 180 191
1.198724 -0.050965 2.587492 37 37 45
1.197233 -0.049460 2.589515 99 103 112
1.200232 -0.052106 2.586722 187 194 204
1.196581 -0.048861 2.590202 187 194 204
1.198581 -0.050830 2.587652 72 72 80
1.197097 -0.049315 2.589725 180 187 197
1.197092 -0.049305 2.589746 192 199 209
1.197256 -0.049476 2.589508 159 163 172
1.197256 -0.049476 2.589508 159 163 172
1.197157 -0.049362 2.589687 183 187 198
1.197249 -0.049453 2.589568 56 60 71
1.197236 -0.049433 2.589607 152 156 167
1.197233 -0.049426 2.589627 63 67 78
1.197233 -0.049426 2.589627 63 67 78
1.197195 -0.049388 2.589679 169 173 184
1.197203 -0.049392 2.589679 52 56 67
1.197286 -0.049467 2.589597 65 69 80
1.197323 -0.049504 2.589547 163 167 178
1.197295 -0.049465 2.589621 171 175 186
1.197708 -0.049926 2.588912 54 54 64
1.198192 -0.050429 2.588208 47 45 56
1.197812 -0.050035 2.588755 60 60 68
1.197522 -0.049721 2.589222 134 69 73
1.198641 -0.050671 2.588305 171 175 186
1.197480 -0.049682 2.589268 122 65 72
1.197690 -0.049910 2.588930 126 126 136
1.197874 -0.050103 2.588653 134 69 75
1.197874 -0.050103 2.588653 134 69 75
1.197793 -0.050007 2.588815 32 30 41
1.198410 -0.050648 2.587911 42 42 50
1.198410 -0.050648 2.587911 42 42 50
1.197743 -0.049953 2.588893 21 21 31
1.197661 -0.049866 2.589018 17 17 27
1.197389 -0.049569 2.589462 110 114 123
1.197377 -0.049539 2.589537 177 181 192
1.197974 -0.050196 2.588545 45 38 46
1.198380 -0.050621 2.587943 43 43 53
1.198380 -0.050621 2.587943 43 43 53
1.197442 -0.049603 2.589456 170 174 185
1.197551 -0.049744 2.589206 27 24 31
1.197935 -0.050158 2.588592 97 97 107
1.197402 -0.049561 2.589513 128 132 143
1.197442 -0.049606 2.589444 44 48 59
1.197708 -0.049865 2.589116 43 46 55
1.198459 -0.050697 2.587846 40 40 50
1.197892 -0.050121 2.588632 126 126 136
1.197235 -0.049409 2.589686 167 171 182
1.197390 -0.049547 2.589538 167 171 182
1.197960 -0.050178 2.588580 52 51 59
1.198078 -0.050313 2.588360 47 45 56
1.198078 -0.050313 2.588360 47 45 56
1.197552 -0.049693 2.589376 37 41 52
1.197552 -0.049693 2.589376 37 41 52
1.198552 -0.050797 2.587700 183 187 196
1.197972 -0.050189 2.588563 25 25 35
1.197698 -0.049903 2.588965 92 92 102
1.198582 -0.050824 2.587671 182 189 199
1.197650 -0.049835 2.589098 79 79 89
1.197525 -0.049657 2.589442 161 165 174
1.197525 -0.049657 2.589442 161 165 174
1.197614 -0.049758 2.589284 51 55 64
1.197571 -0.049705 2.589376 28 32 41
1.198243 -0.050485 2.588118 37 37 47
1.198243 -0.050485 2.588118 37 37 47
1.197829 -0.050028 2.588814 45 45 53
1.197829 -0.050028 2.588814 45 45 53
1.197966 -0.050185 2.588564 15 15 23
1.197843 -0.050035 2.588819 48 48 56
1.198321 -0.050556 2.588041 77 77 87
1.198098 -0.050326 2.588356 44 44 54
1.198098 -0.050326 2.588356 44 44 54
1.198334 -0.050583 2.587974 40 43 52
1.198334 -0.050583 2.587974 40 43 52
1.198087 -0.050305 2.588407 45 45 55
1.198501 -0.050746 2.587766 160 167 177
1.198501 -0.050746 2.587766 160 167 177
1.198287 -0.050521 2.588088 36 36 46
1.198321 -0.050563 2.588014 33 36 45
1.198321 -0.050563 2.588014 33 36 45
1.197634 -0.049754 2.589336 26 30 39
1.198337 -0.050578 2.587997 27 30 39
1.198337 -0.050578 2.587997 27 30 39
1.198447 -0.050694 2.587831 21 25 36
1.198472 -0.050714 2.587815 2 6 17
1.197918 -0.050117 2.588695 131 131 139
1.198478 -0.050717 2.587816 49 53 64
1.198130 -0.050360 2.588308 105 108 115
1.198468 -0.050703 2.587842 26 30 41
1.198438 -0.050675 2.587874 39 43 52
1.198128 -0.050328 2.588411 87 72 67
5.970793 -0.254181 8.146128 45 9 9
5.973850 -0.257283 8.142062 72 63 68
5.971781 -0.255223 8.144723 209 164 161
5.971781 -0.255223 8.144723 209 164 161
5.975538 -0.259097 8.139582 52 46 46
5.971513 -0.254955 8.145066 143 61 65
5.972808 -0.256247 8.143396 164 171 181
5.974991 -0.258620 8.140084 169 104 108
5.975293 -0.258802 8.140011 169 104 108
5.972491 -0.255900 8.143876 161 168 178
5.972491 -0.255900 8.143876 161 168 178
5.974747 -0.258266 8.140697 53 53 63
5.974747 -0.258266 8.140697 53 53 63
5.971431 -0.254833 8.145263 173 165 176
5.971452 -0.254905 8.145120 135 53 55
5.971584 -0.255000 8.145031 187 151 151
5.971584 -0.255000 8.145031 187 151 151
5.976234 -0.259863 8.138516 41 41 51
5.976234 -0.259863 8.138516 41 41 51
5.974496 -0.258273 8.140385 51 54 63
5.977224 -0.260927 8.137053 22 22 30
5.971422 -0.254825 8.145270 154 58 62
5.973659 -0.257097 8.142291 88 91 100
5.973659 -0.257097 8.142291 88 91 100
5.975531 -0.259096 8.139569 47 47 55
5.975531 -0.259096 8.139569 47 47 55
5.975916 -0.259483 8.139066 41 41 51
5.974215 -0.257671 8.141528 83 86 95
5.972294 -0.255706 8.144120 46 53 63
5.976572 -0.260224 8.138020 230 158 162
5.972564 -0.255975 8.143771 173 180 190
5.976614 -0.260260 8.137978 37 44 50
5.976614 -0.260260 8.137978 37 44 50
5.975036 -0.258539 8.140356 113 120 126
5.975036 -0.258539 8.140356 113 120 126
5.974800 -0.258317 8.140588 45 45 53
5.972237 -0.255637 8.144219 163 170 180
5.976752 -0.260397 8.137801 35 35 43
5.976752 -0.260397 8.137801 35 35 43
5.972889 -0.256364 8.143206 176 180 189
5.972889 -0.256364 8.143206 176 180 189
5.973735 -0.257758 8.140809 49 53 64
5.974458 -0.258757 8.139226 45 49 60
5.971482 -0.254940 8.145062 188 152 164
5.971229 -0.254697 8.145366 158 143 150
5.971229 -0.254697 8.145366 158 143 150
5.976608 -0.260242 8.138012 37 37 45
5.976608 -0.260242 8.138012 37 37 45
5.976553 -0.260209 8.138037 36 39 46
5.973675 -0.257102 8.142295 59 62 71
5.976816 -0.260452 8.137734 28 28 36
5.975851 -0.259422 8.139141 44 44 54
5.975851 -0.259422 8.139141 44 44 54
5.972558 -0.256000 8.143708 51 55 66
5.973794 -0.257257 8.142054 91 94 103
5.972806 -0.256492 8.142806 183 190 200
5.972592 -0.256031 8.143666 131 135 144
5.971123 -0.254603 8.145475 164 145 149
5.976308 -0.259947 8.138388 111 111 119
5.976346 -0.259946 8.138427 42 42 50
5.976346 -0.259946 8.138427 42 42 50
5.976150 -0.259758 8.138661 131 131 141
5.976150 -0.259758 8.138661 131 131 141
5.972328 -0.255791 8.143951 167 171 182
5.972328 -0.255791 8.143951 167 171 182
5.972575 -0.256041 8.143625 45 49 58
5.972107 -0.255549 8.144285 173 180 190
5.972237 -0.255691 8.144090 176 180 191
5.972237 -0.255691 8.144090 176 180 191
5.972395 -0.255848 8.143886 99 103 112
5.972003 -0.255457 8.144389 187 194 204
5.973108 -0.257029 8.141860 187 194 204
5.974168 -0.258490 8.139548 187 194 204
5.973010 -0.256495 8.143015 103 106 115
5.973010 -0.256495 8.143015 103 106 115
5.972064 -0.255575 8.144182 180 187 197
5.972005 -0.255507 8.144279 192 199 209
5.972340 -0.255811 8.143914 159 163 172
5.971964 -0.255453 8.144359 183 187 198
5.972078 -0.255560 8.144225 56 60 71
5.971980 -0.255485 8.144297 152 156 167
5.971808 -0.255336 8.144465 151 155 166
5.972097 -0.255605 8.144140 56 60 71
5.971893 -0.255415 8.144369 63 67 78
5.971847 -0.255361 8.144451 169 173 184
5.971704 -0.255188 8.144700 52 56 67
5.971885 -0.255430 8.144326 65 69 80
5.971916 -0.255448 8.144314 163 167 178
5.971916 -0.255448 8.144314 163 167 178
5.971702 -0.255257 8.144537 171 175 186
5.972653 -0.256532 8.142547 171 175 186
5.973775 -0.257239 8.142065 134 69 75
5.975114 -0.258609 8.140257 61 48 57
5.971985 -0.255502 8.144258 110 114 123
5.971766 -0.255349 8.144386 128 132 143
5.974417 -0.257918 8.141149 50 49 57
5.971449 -0.254922 8.145052 167 171 182
5.971742 -0.255346 8.144368 167 171 182
5.973760 -0.257276 8.141963 140 139 147
5.975439 -0.258984 8.139720 47 47 57
5.974871 -0.258397 8.140498 119 119 129
5.974871 -0.258397 8.140498 119 119 129
5.971620 -0.255255 8.144453 161 165 174
5.971620 -0.255255 8.144453 161 165 174
5.971810 -0.255457 8.144182 28 32 41
5.972659 -0.256142 8.143462 80 80 90
5.972659 -0.256142 8.143462 80 80 90
5.972557 -0.256042 8.143588 52 52 62
5.971786 -0.255427 8.144222 43 47 58
5.975011 -0.258537 8.140318 78 78 86
5.972494 -0.256005 8.143610 86 86 96
5.975136 -0.258657 8.140167 33 36 45
5.971752 -0.255421 8.144201 26 30 39
5.975574 -0.259127 8.139526 21 25 36
5.975085 -0.258590 8.140267 38 41 50
5.971674 -0.255345 8.144299 161 165 174
5.975586 -0.259168 8.139441 49 53 64
5.975440 -0.259005 8.139669 39 43 52
1.007642 -0.182787 0.889380 32 0 0
1.007951 -0.183120 0.888885 187 146 152
1.007951 -0.183120 0.888885 187 146 152
1.007790 -0.182953 0.889122 155 139 140
1.007842 -0.183010 0.889034 163 154 155
1.009016 -0.184248 0.887241 40 41 46
1.007871 -0.183033 0.889015 176 155 162
1.007858 -0.183020 0.889032 176 155 162
1.007817 -0.182974 0.889101 136 42 42
1.008682 -0.183889 0.887771 45 40 44
1.008842 -0.184054 0.887535 40 40 48
1.009336 -0.184573 0.886788 175 113 114
1.008773 -0.183984 0.887635 49 44 50
1.009276 -0.184509 0.886882 40 38 43
1.008660 -0.183871 0.887786 210 150 150
1.007869 -0.183027 0.889028 146 38 38
1.007869 -0.183027 0.889028 146 38 38
1.009231 -0.184468 0.886929 45 40 44
1.009355 -0.184609 0.886694 35 35 43
1.009322 -0.184559 0.886806 40 40 42
1.008242 -0.183420 0.888458 172 175 184
1.008980 -0.184198 0.887328 47 46 54
1.007876 -0.183036 0.889014 190 171 164
1.007876 -0.183036 0.889014 190 171 164
1.009701 -0.184959 0.886222 161 100 105
1.007686 -0.182818 0.889355 149 27 22
1.009962 -0.185234 0.885820 7 10 15
1.008226 -0.183404 0.888480 23 26 35
1.008723 -0.183928 0.887719 47 45 56
1.009100 -0.184329 0.887130 34 31 38
1.009100 -0.184329 0.887130 34 31 38
1.008313 -0.183496 0.888347 199 202 211
1.009713 -0.184965 0.886224 39 34 40
1.008210 -0.183385 0.888512 153 156 165
1.008210 -0.183385 0.888512 153 156 165
1.009695 -0.184952 0.886234 39 30 31
1.007868 -0.183018 0.889051 169 138 146
1.007746 -0.182892 0.889232 158 144 144
1.007746 -0.182892 0.889232 158 144 144
1.009482 -0.184722 0.886576 38 35 42
1.007812 -0.182961 0.889131 160 54 58
1.008343 -0.183534 0.888280 191 191 199
1.008343 -0.183534 0.888280 191 191 199
1.009843 -0.185106 0.886012 35 36 41
1.009843 -0.185106 0.886012 35 36 41
1.009892 -0.185150 0.885961 16 17 22
1.009892 -0.185150 0.885961 16 17 22
1.008255 -0.183433 0.888439 107 110 119
1.009480 -0.184722 0.886572 96 95 103
1.007887 -0.183031 0.889044 147 140 147
1.008959 -0.184177 0.887358 57 54 63
1.008959 -0.184177 0.887358 57 54 63
1.010278 -0.185485 0.885639 45 42 51
1.007883 -0.183029 0.889042 179 143 145
1.007883 -0.183029 0.889042 179 143 145
1.008239 -0.183409 0.888486 168 171 180
1.008311 -0.183488 0.888365 50 50 60
1.009049 -0.184271 0.887222 46 43 52
1.007824 -0.182964 0.889142 163 142 141
1.007886 -0.183028 0.889050 190 151 154
1.007886 -0.183028 0.889050 190 151 154
1.009464 -0.184707 0.886590 32 32 40
1.009464 -0.184707 0.886590 32 32 40
1.008238 -0.183412 0.888474 161 164 173
1.009756 -0.185017 0.886134 30 29 35
1.009756 -0.185017 0.886134 30 29 35
1.007748 -0.182883 0.889261 168 144 142
1.007810 -0.182949 0.889162 156 146 154
1.007845 -0.182984 0.889116 107 33 30
1.009170 -0.184417 0.886945 68 67 73
1.009170 -0.184417 0.886945 68 67 73
1.008211 -0.183375 0.888540 180 183 192
1.008211 -0.183375 0.888540 180 183 192
1.009130 -0.184384 0.886977 34 33 39
1.009130 -0.184384 0.886977 34 33 39
1.008928 -0.184138 0.887425 50 47 56
1.008928 -0.184138 0.887425 50 47 56
1.009045 -0.184325 0.887018 29 30 35
1.008893 -0.184190 0.887172 37 38 43
1.008229 -0.183396 0.888505 159 162 171
1.010109 -0.185327 0.885818 45 45 53
1.008299 -0.183474 0.888388 48 48 58
1.008182 -0.183343 0.888589 159 162 171
1.009108 -0.184365 0.887000 80 81 86
1.008304 -0.183475 0.888391 32 32 42
1.008202 -0.183362 0.888564 39 42 51
1.008202 -0.183362 0.888564 39 42 51
1.008228 -0.183390 0.888522 160 163 172
1.008228 -0.183390 0.888522 160 163 172
1.008176 -0.183333 0.888609 170 173 182
1.008006 -0.183138 0.888916 151 28 23
1.008006 -0.183138 0.888916 151 28 23
1.009400 -0.184647 0.886697 39 38 46
1.009400 -0.184647 0.886697 39 38 46
1.009298 -0.184530 0.886818 34 33 39
1.007674 -0.182773 0.889468 136 60 60
1.008259 -0.183421 0.888480 44 44 54
1.008189 -0.183347 0.888588 43 43 53
1.008189 -0.183347 0.888588 43 43 53
1.007976 -0.183111 0.888945 130 44 53
1.007976 -0.183111 0.888945 130 44 53
1.008170 -0.183322 0.888632 174 174 184
1.008466 -0.183648 0.888134 97 97 105
1.008148 -0.183296 0.888675 176 179 188
1.008148 -0.183296 0.888675 176 179 188
1.008257 -0.183414 0.888499 44 44 54
1.008268 -0.183431 0.888464 83 83 93
1.009484 -0.184680 0.886670 108 109 114
1.009484 -0.184680 0.886670 108 109 114
1.008176 -0.183319 0.888650 187 187 197
1.008176 -0.183319 0.888650 187 187 197
1.009426 -0.184664 0.886653 105 104 110
1.008239 -0.183387 0.888550 43 43 53
1.008197 -0.183339 0.888624 164 164 174
1.008194 -0.183327 0.888656 137 137 147
1.008169 -0.183299 0.888697 49 49 59
1.008177 -0.183307 0.888686 54 54 64
1.008201 -0.183341 0.888623 46 46 56
1.008203 -0.183335 0.888644 171 171 181
1.008146 -0.183268 0.888753 158 161 170
1.008146 -0.183268 0.888753 158 161 170
1.008217 -0.183351 0.888619 39 39 49
1.008430 -0.183587 0.888259 119 40 46
1.009281 -0.184412 0.887170 50 47 56
1.009043 -0.184203 0.887408 57 54 63
1.008888 -0.184081 0.887525 58 45 55
1.008423 -0.183573 0.888291 42 39 48
1.008436 -0.183591 0.888258 152 100 104
1.009256 -0.184449 0.887016 45 44 52
1.008636 -0.183811 0.887921 111 108 117
1.008636 -0.183811 0.887921 111 108 117
1.008734 -0.183912 0.887781 29 26 35
1.008826 -0.183975 0.887741 15 14 22
1.008176 -0.183316 0.888656 142 142 152
1.008176 -0.183316 0.888656 142 142 152
1.009037 -0.184185 0.887454 32 29 38
1.009037 -0.184185 0.887454 32 29 38
1.009432 -0.184673 0.886634 31 31 39
1.008192 -0.183316 0.888683 177 177 187
1.008183 -0.183299 0.888720 157 157 167
1.008247 -0.183361 0.888639 147 147 157
1.008247 -0.183361 0.888639 147 147 157
1.008302 -0.183433 0.888512 34 35 40
1.008844 -0.184100 0.887412 50 47 56
1.008526 -0.183681 0.888134 42 39 46
1.008278 -0.183399 0.888576 47 47 57
1.008233 -0.183350 0.888647 160 160 170
1.008850 -0.184046 0.887567 105 99 111
1.008400 -0.183685 0.887940 50 47 56
1.009245 -0.184475 0.886924 41 40 48
1.008217 -0.183328 0.888690 173 173 183
1.009372 -0.184602 0.886751 36 36 44
1.008923 -0.184116 0.887475 37 34 43
1.008689 -0.183860 0.887863 46 40 50
1.008906 -0.184097 0.887503 133 130 139
1.008804 -0.183981 0.887687 90 84 94
1.009161 -0.184387 0.887050 45 34 40
1.005688 -0.181164 0.891089 36 33 42
1.008228 -0.183343 0.888662 166 166 176
1.008501 -0.183648 0.888191 94 93 101
1.008279 -0.183386 0.888617 39 39 49
1.008279 -0.183386 0.888617 39 39 49
1.008525 -0.183794 0.887808 51 48 55
1.009370 -0.184606 0.886734 36 36 44
1.008271 -0.183379 0.888624 157 157 167
1.008271 -0.183379 0.888624 157 157 167
1.008271 -0.183379 0.888624 157 157 167
1.008887 -0.184076 0.887537 21 18 27
1.009045 -0.184255 0.887255 42 39 48
1.008195 -0.183294 0.888753 160 163 172
1.008249 -0.183353 0.888667 11 11 21
1.008249 -0.183353 0.888667 11 11 21
1.009313 -0.184544 0.886826 43 43 51
1.008273 -0.183391 0.888591 0 0 9
1.009423 -0.184664 0.886644 196 200 209
1.009457 -0.184697 0.886603 199 203 212
1.009779 -0.184935 0.886393 44 44 52
1.009475 -0.184712 0.886587 133 137 148
1.009437 -0.184677 0.886632 29 33 44
1.008902 -0.184090 0.887518 28 25 32
1.009446 -0.184685 0.886620 192 196 205
1.009446 -0.184685 0.886620 192 196 205
1.009442 -0.184681 0.886626 191 195 204
1.009442 -0.184681 0.886626 191 195 204
1.008883 -0.184075 0.887534 17 14 21
1.008883 -0.184075 0.887534 17 14 21
1.008869 -0.184056 0.887566 43 40 47
1.008303 -0.183395 0.888628 19 19 29
1.008308 -0.183405 0.888606 153 153 163
1.008308 -0.183405 0.888606 153 153 163
1.009249 -0.184468 0.886951 37 37 45
1.008247 -0.183341 0.888699 168 168 178
1.009333 -0.184560 0.886812 27 27 35
1.009333 -0.184560 0.886812 27 27 35
1.009174 -0.184397 0.887040 26 26 34
1.009152 -0.184373 0.887075 35 35 43
1.009005 -0.184201 0.887356 14 13 21
1.009332 -0.184573 0.886768 0 0 9
1.009332 -0.184573 0.886768 0 0 9
1.009229 -0.184457 0.886950 34 37 44
1.009229 -0.184457 0.886950 34 37 44
1.009349 -0.184573 0.886798 29 29 37
1.009394 -0.184628 0.886707 38 42 51
1.009329 -0.184565 0.886788 10 14 23
1.008238 -0.183351 0.888652 24 24 32
1.009290 -0.184526 0.886839 37 41 50
1.008086 -0.183115 0.889117 22 27 33
1.009296 -0.184529 0.886842 202 206 217
1.009171 -0.184384 0.887072 30 31 36
1.009058 -0.184265 0.887246 124 125 130
1.009058 -0.184265 0.887246 124 125 130
1.009259 -0.184492 0.886892 41 45 56
1.008281 -0.183288 0.888916 135 131 130
1.009377 -0.184600 0.886761 32 37 41
0.829739 -0.277301 0.506736 187 146 152
0.829739 -0.277301 0.506736 187 146 152
0.829703 -0.277120 0.507117 155 139 140
0.829723 -0.277219 0.506907 163 154 155
0.829691 -0.277047 0.507270 136 42 42
0.830053 -0.278912 0.503345 41 40 46
0.829958 -0.278415 0.504392 40 40 48
0.829617 -0.276701 0.507990 135 49 48
0.830027 -0.278775 0.503633 49 48 56
0.830027 -0.278775 0.503633 49 48 56
0.829697 -0.277075 0.507211 146 38 38
0.829697 -0.277075 0.507211 146 38 38
0.829947 -0.278362 0.504504 85 82 93
0.829921 -0.278238 0.504749 47 46 54
0.829877 -0.278047 0.505147 89 88 94
0.829792 -0.277562 0.506185 23 26 35
0.829817 -0.277694 0.505907 199 202 211
0.829781 -0.277501 0.506313 153 156 165
0.829781 -0.277501 0.506313 153 156 165
0.829653 -0.276850 0.507681 158 144 144
0.829653 -0.276850 0.507681 158 144 144
0.829836 -0.277784 0.505718 191 191 199
0.829836 -0.277784 0.505718 191 191 199
0.830200 -0.279677 0.501732 29 30 35
0.829795 -0.277577 0.506154 107 110 119
0.829786 -0.277629 0.506025 189 192 201
0.829670 -0.276940 0.507492 147 140 147
0.829933 -0.278287 0.504661 41 40 48
0.829676 -0.276965 0.507440 107 27 28
0.829673 -0.276950 0.507471 179 143 145
0.829673 -0.276950 0.507471 179 143 145
0.830004 -0.278669 0.503855 40 37 46
0.830052 -0.278899 0.503372 84 81 88
0.830043 -0.278860 0.503453 50 47 54
0.829920 -0.278223 0.504795 69 68 76
0.829920 -0.278217 0.504806 43 42 50
0.829751 -0.277784 0.505668 190 151 154
0.829661 -0.276884 0.507609 190 151 154
0.829640 -0.276770 0.507849 156 146 154
0.829645 -0.276800 0.507785 107 33 30
0.830057 -0.278935 0.503295 42 39 48
0.829975 -0.278500 0.504211 53 50 59
0.829975 -0.278500 0.504211 53 50 59
0.829764 -0.277408 0.506508 41 44 53
0.829764 -0.277408 0.506508 41 44 53
0.829960 -0.278423 0.504373 90 87 96
0.829798 -0.277587 0.506132 29 29 39
0.829961 -0.278430 0.504357 50 47 56
0.829961 -0.278430 0.504357 50 47 56
0.830192 -0.279655 0.501777 29 30 35
0.829763 -0.277403 0.506517 159 162 171
0.829743 -0.277302 0.506729 159 162 171
0.829743 -0.277302 0.506729 159 162 171
0.829742 -0.277293 0.506750 39 42 51
0.829742 -0.277293 0.506750 39 42 51
0.829748 -0.277318 0.506696 160 163 172
0.829748 -0.277318 0.506696 160 163 172
0.830035 -0.278816 0.503545 92 91 99
0.829649 -0.276808 0.507768 151 28 23
0.829649 -0.276808 0.507768 151 28 23
0.829755 -0.277364 0.506598 44 44 54
0.829733 -0.277243 0.506853 43 43 53
0.829733 -0.277243 0.506853 43 43 53
0.829711 -0.277117 0.507120 174 174 184
0.829700 -0.277068 0.507220 176 179 188
0.829700 -0.277068 0.507220 176 179 188
0.829718 -0.277164 0.507018 51 51 61
0.830112 -0.279235 0.502659 108 109 114
0.829690 -0.277013 0.507336 164 164 174
0.829668 -0.276896 0.507581 137 137 147
0.829662 -0.276873 0.507630 49 49 59
0.829666 -0.276883 0.507607 171 171 181
0.829635 -0.276730 0.507930 158 161 170
0.829917 -0.278200 0.504838 168 97 93
0.829943 -0.278340 0.504542 50 47 56
0.829822 -0.277831 0.505591 82 76 86
0.829630 -0.276704 0.507983 147 147 157
0.829630 -0.276704 0.507983 147 147 157
0.829635 -0.276724 0.507941 160 160 170
0.829616 -0.276626 0.508146 173 173 183
0.830102 -0.279201 0.502728 27 27 35
0.829656 -0.276839 0.507699 171 171 181
0.829616 -0.276620 0.508159 39 39 49
0.829616 -0.276620 0.508159 39 39 49
0.830025 -0.278784 0.503607 33 32 38
0.829601 -0.276540 0.508326 11 11 21
0.830125 -0.279337 0.502441 199 203 212
0.829829 -0.277725 0.505836 44 39 46
0.829829 -0.277725 0.505836 44 39 46
0.829744 -0.277276 0.506781 69 68 74
0.829781 -0.277411 0.506512 76 75 81
0.829593 -0.276493 0.508424 153 153 163
0.829577 -0.276422 0.508574 168 168 178
0.829577 -0.276422 0.508574 168 168 178
0.830023 -0.278775 0.503625 35 35 43
0.829570 -0.276380 0.508661 169 169 179
0.830097 -0.279179 0.502774 38 42 51
0.830081 -0.279088 0.502967 37 41 50
1.727312 -0.001435 5.328127 15 0 0
1.727312 -0.001435 5.328127 15 0 0
1.726784 -0.001015 5.328540 158 36 33
1.727373 -0.001480 5.328091 39 5 6
1.726989 -0.001179 5.328378 184 152 157
1.726989 -0.001179 5.328378 184 152 157
1.727089 -0.001260 5.328296 165 148 158
1.727109 -0.001266 5.328309 144 45 48
1.726982 -0.001154 5.328444 182 152 154
1.727185 -0.001333 5.328230 153 45 42
1.727185 -0.001333 5.328230 153 45 42
1.727045 -0.001218 5.328352 168 143 146
1.727045 -0.001218 5.328352 168 143 146
1.726757 -0.001012 5.328509 7 7 15
1.725644 -0.000095 5.329473 83 80 87
1.725445 0.000077 5.329669 48 43 50
1.727047 -0.001208 5.328387 152 38 38
1.725801 -0.000208 5.329385 33 30 37
1.725801 -0.000208 5.329385 33 30 37
1.727092 -0.001254 5.328319 186 147 150
1.727092 -0.001254 5.328319 186 147 150
1.725378 0.000125 5.329706 36 34 35
1.725206 0.000259 5.329833 37 32 39
1.725206 0.000259 5.329833 37 32 39
1.726693 -0.000938 5.328629 46 47 52
1.725994 -0.000371 5.329206 75 70 77
1.725994 -0.000371 5.329206 75 70 77
1.726638 -0.000900 5.328652 168 168 176
1.726729 -0.000966 5.328600 149 150 155
1.726729 -0.000966 5.328600 149 150 155
1.727284 -0.001403 5.328183 154 142 146
1.727284 -0.001403 5.328183 154 142 146
1.727211 -0.001355 5.328206 167 141 142
1.726624 -0.000901 5.328627 195 194 200
1.726624 -0.000901 5.328627 195 194 200
1.727206 -0.001342 5.328240 154 150 147
1.725435 0.000078 5.329655 112 111 116
1.725795 -0.000211 5.329367 83 78 85
1.726666 -0.000915 5.328655 33 33 41
1.726036 -0.000405 5.329169 35 32 39
1.727109 -0.001254 5.328347 174 140 139
1.727109 -0.001254 5.328347 174 140 139
1.726806 -0.001049 5.328475 30 29 35
1.726806 -0.001049 5.328475 30 29 35
1.727370 -0.001483 5.328081 162 147 152
1.727324 -0.001425 5.328180 168 146 149
1.727324 -0.001425 5.328180 168 146 149
1.727189 -0.001321 5.328276 204 159 164
1.727420 -0.001526 5.328033 149 142 149
1.726049 -0.000421 5.329143 76 73 80
1.725117 0.000342 5.329940 31 28 35
1.725117 0.000342 5.329940 31 28 35
1.726867 -0.001080 5.328481 192 192 200
1.726867 -0.001080 5.328481 192 192 200
1.725392 0.000115 5.329699 85 80 87
1.726945 -0.001150 5.328397 3 3 11
1.725942 -0.000337 5.329225 46 41 48
1.725942 -0.000337 5.329225 46 41 48
1.726372 -0.000682 5.328880 140 137 144
1.726786 -0.001008 5.328567 155 155 163
1.726786 -0.001008 5.328567 155 155 163
1.726731 -0.000972 5.328589 12 11 17
1.726916 -0.001117 5.328450 163 163 171
1.725956 -0.000348 5.329216 36 31 38
1.726944 -0.001149 5.328397 190 190 198
1.726944 -0.001149 5.328397 190 190 198
1.727255 -0.001380 5.328209 151 26 22
1.726877 -0.001088 5.328474 38 37 45
1.726877 -0.001088 5.328474 38 37 45
1.725549 -0.000020 5.329544 80 75 82
1.726851 -0.001074 5.328474 100 99 107
1.726968 -0.001162 5.328396 44 43 51
1.726968 -0.001162 5.328396 44 43 51
1.726582 -0.000862 5.328678 105 102 109
1.727007 -0.001188 5.328382 177 176 184
1.727126 -0.001292 5.328262 184 184 192
1.727126 -0.001292 5.328262 184 184 192
1.727126 -0.001292 5.328262 184 184 192
1.725772 -0.000199 5.329366 138 133 140
1.725772 -0.000199 5.329366 138 133 140
1.726875 -0.001079 5.328497 24 23 31
1.726886 -0.001100 5.328455 102 101 109
1.726886 -0.001100 5.328455 102 101 109
1.727033 -0.001202 5.328385 180 179 185
1.727033 -0.001202 5.328385 180 179 185
1.727028 -0.001210 5.328351 28 27 35
1.725307 0.000176 5.329748 104 101 108
1.727044 -0.001211 5.328377 151 150 158
1.727187 -0.001337 5.328230 26 25 33
1.727165 -0.001312 5.328270 115 115 123
1.727208 -0.001345 5.328239 38 38 46
1.727114 -0.001277 5.328290 38 35 44
1.727134 -0.001278 5.328321 28 28 36
1.727095 -0.001247 5.328352 169 168 176
1.726881 -0.001080 5.328508 35 32 39
1.727291 -0.001411 5.328176 161 161 169
1.727244 -0.001390 5.328158 35 32 41
1.727410 -0.001619 5.327716 38 33 40
1.727256 -0.001483 5.327875 41 36 43
1.727256 -0.001483 5.327875 41 36 43
1.726147 -0.000508 5.329041 251 176 181
1.725990 -0.000387 5.329148 34 28 38
1.726918 -0.001184 5.328233 34 28 38
1.727135 -0.001292 5.328279 189 186 195
1.727133 -0.001382 5.327981 114 108 118
1.727200 -0.001326 5.328282 184 183 191
1.726029 -0.000411 5.329144 47 41 51
1.726138 -0.000492 5.329077 153 78 83
1.727064 -0.001205 5.328430 163 160 169
1.727196 -0.001317 5.328304 165 164 172
1.727039 -0.001171 5.328493 89 88 96
1.727039 -0.001171 5.328493 89 88 96
1.725041 0.000422 5.330058 30 30 38
1.725763 -0.000192 5.329376 48 42 52
1.727304 -0.001425 5.328155 154 151 160
1.727236 -0.001351 5.328265 167 166 174
1.727261 -0.001378 5.328228 35 34 42
1.725849 -0.000258 5.329269 38 33 40
1.727192 -0.001313 5.328313 172 171 179
1.727192 -0.001313 5.328313 172 171 179
1.725496 0.000061 5.329663 44 38 48
1.725496 0.000061 5.329663 44 38 48
1.726222 -0.000566 5.328991 35 28 36
1.727167 -0.001285 5.328354 34 33 41
1.727167 -0.001285 5.328354 34 33 41
1.725394 0.000122 5.329723 31 28 37
1.725394 0.000122 5.329723 31 28 37
1.727160 -0.001280 5.328358 150 149 157
1.727160 -0.001280 5.328358 150 149 157
1.725827 -0.000241 5.329286 50 44 54
1.725682 -0.000154 5.329397 72 72 80
1.727201 -0.001300 5.328367 154 153 161
1.727201 -0.001300 5.328367 154 153 161
1.727138 -0.001252 5.328408 12 11 19
1.727138 -0.001252 5.328408 12 11 19
1.725650 -0.000106 5.329451 80 75 82
1.726547 -0.000817 5.328760 95 90 97
1.725962 -0.000353 5.329210 42 36 46
1.725729 -0.000145 5.329460 34 29 36
1.725729 -0.000145 5.329460 34 29 36
1.726035 -0.000401 5.329185 46 41 48
1.726035 -0.000401 5.329185 46 41 48
1.727280 -0.001383 5.328244 167 166 174
1.727166 -0.001281 5.328369 187 186 194
1.727147 -0.001259 5.328403 29 28 36
1.725300 0.000205 5.329823 27 26 34
1.725300 0.000205 5.329823 27 26 34
1.727198 -0.001297 5.328372 17 16 24
1.727130 -0.001241 5.328431 156 155 161
1.727130 -0.001241 5.328431 156 155 161
1.725466 0.000072 5.329691 27 24 31
1.725245 0.000299 5.330066 32 29 36
1.725416 0.000108 5.329716 25 24 30
1.725126 0.000354 5.329990 0 0 9
1.725126 0.000354 5.329990 0 0 9
1.727047 -0.001211 5.328383 64 62 67
1.727047 -0.001211 5.328383 64 62 67
1.725288 0.000220 5.329846 25 25 33
1.725241 0.000250 5.329863 0 2 14
1.725059 0.000418 5.330073 15 18 27
1.727145 -0.001298 5.328280 14 12 17
1.727296 -0.001412 5.328180 19 18 23
1.727144 -0.001299 5.328275 126 124 129
1.726958 -0.001159 5.328392 21 19 24
1.725340 0.000162 5.329761 179 181 193
1.725111 0.000378 5.330037 28 31 40
1.725146 0.000346 5.329999 189 192 201
1.725146 0.000346 5.329999 189 192 201
1.725393 0.000119 5.329716 187 190 199
1.725388 0.000125 5.329725 5 8 17
1.725363 0.000152 5.329768 39 42 51
1.725412 0.000104 5.329697 39 42 51
0.600821 0.002235 0.163652 15 0 0
0.600849 0.002206 0.163595 159 145 145
0.600858 0.002197 0.163580 184 152 157
0.600858 0.002197 0.163580 184 152 157
0.600849 0.002206 0.163596 165 148 158
0.600935 0.002119 0.163433 47 28 32
0.600840 0.002215 0.163613 144 45 48
0.600843 0.002211 0.163606 153 45 42
0.600843 0.002211 0.163606 153 45 42
0.600921 0.002133 0.163460 40 31 34
0.600885 0.002170 0.163529 31 31 39
0.600846 0.002209 0.163602 168 143 146
0.600869 0.002187 0.163561 7 7 15
0.600879 0.002175 0.163540 205 205 213
0.600833 0.002223 0.163628 152 38 38
0.600833 0.002223 0.163628 152 38 38
0.600876 0.002179 0.163546 177 178 183
0.600822 0.002235 0.163651 186 147 150
0.600801 0.002255 0.163689 151 27 25
0.600996 0.002056 0.163314 39 32 39
0.600997 0.002056 0.163315 31 28 35
0.600881 0.002173 0.163535 168 168 176
0.600914 0.002141 0.163474 40 31 36
0.600804 0.002253 0.163686 154 142 146
0.600804 0.002253 0.163686 154 142 146
0.600964 0.002089 0.163376 34 29 36
0.600838 0.002217 0.163616 167 141 142
0.600887 0.002167 0.163524 34 34 42
0.600876 0.002179 0.163546 32 31 37
0.600863 0.002193 0.163573 109 109 117
0.600838 0.002217 0.163616 154 150 147
0.600827 0.002228 0.163638 174 140 139
0.600827 0.002228 0.163638 174 140 139
0.600996 0.002056 0.163314 98 95 104
0.600868 0.002188 0.163562 30 29 35
0.600868 0.002188 0.163562 30 29 35
0.600878 0.002176 0.163540 4 4 12
0.601040 0.002010 0.163227 35 34 40
0.601040 0.002010 0.163227 35 34 40
0.601035 0.002015 0.163236 26 23 30
0.600818 0.002238 0.163655 168 146 149
0.600818 0.002238 0.163655 168 146 149
0.600828 0.002228 0.163637 204 159 164
0.600816 0.002239 0.163659 149 142 149
0.600935 0.002118 0.163432 44 39 46
0.601031 0.002019 0.163245 29 26 33
0.600986 0.002066 0.163332 75 70 77
0.600816 0.002239 0.163659 110 23 29
0.600816 0.002239 0.163659 110 23 29
0.600912 0.002143 0.163478 76 73 80
0.600844 0.002212 0.163608 192 192 200
0.600844 0.002212 0.163608 192 192 200
0.600959 0.002094 0.163385 105 100 106
0.600891 0.002164 0.163517 140 137 144
0.600843 0.002213 0.163610 155 155 163
0.600862 0.002193 0.163572 155 155 163
0.600847 0.002209 0.163602 163 163 171
0.600921 0.002133 0.163460 36 31 38
0.600862 0.002193 0.163573 26 25 31
0.600956 0.002097 0.163393 38 33 40
0.600859 0.002196 0.163577 190 190 198
0.600859 0.002196 0.163577 190 190 198
0.600840 0.002216 0.163616 155 155 163
0.600844 0.002212 0.163609 38 37 45
0.600844 0.002212 0.163609 38 37 45
0.600860 0.002195 0.163576 100 99 107
0.600849 0.002207 0.163597 44 43 51
0.600885 0.002170 0.163529 105 102 109
0.600847 0.002208 0.163600 177 176 184
0.600836 0.002220 0.163622 184 184 192
0.600836 0.002220 0.163622 184 184 192
0.600878 0.002177 0.163543 137 134 141
0.600878 0.002177 0.163543 137 134 141
0.600867 0.002188 0.163561 102 101 109
0.600867 0.002188 0.163561 102 101 109
0.600838 0.002218 0.163620 29 28 36
0.600838 0.002218 0.163620 29 28 36
0.600835 0.002221 0.163624 180 179 185
0.600834 0.002222 0.163626 28 27 35
0.601000 0.002051 0.163304 104 101 108
0.600821 0.002235 0.163652 151 150 158
0.601000 0.002052 0.163305 113 108 115
0.600952 0.002103 0.163403 25 26 31
0.600826 0.002230 0.163641 26 25 33
0.600826 0.002230 0.163641 26 25 33
0.600815 0.002242 0.163663 115 115 123
0.600841 0.002214 0.163610 38 38 46
0.600826 0.002230 0.163641 193 192 200
0.600824 0.002232 0.163646 38 35 44
0.600821 0.002235 0.163650 28 28 36
0.600820 0.002236 0.163653 35 32 41
0.600846 0.002210 0.163604 135 46 50
0.600811 0.002246 0.163670 32 29 38
0.600930 0.002124 0.163441 48 42 52
0.600915 0.002140 0.163472 44 38 48
0.600915 0.002140 0.163472 44 38 48
0.600810 0.002246 0.163671 163 160 169
0.600810 0.002246 0.163671 163 160 169
0.600937 0.002117 0.163428 36 30 40
0.600815 0.002241 0.163660 89 88 96
0.600989 0.002063 0.163327 30 30 38
0.600807 0.002249 0.163677 154 151 160
0.600799 0.002258 0.163694 35 34 42
0.600979 0.002073 0.163345 34 31 40
0.600811 0.002245 0.163668 172 171 179
0.600811 0.002245 0.163668 172 171 179
0.600841 0.002215 0.163612 86 81 88
0.600957 0.002096 0.163389 31 28 37
0.600792 0.002265 0.163707 150 149 157
0.600792 0.002265 0.163707 150 149 157
0.600792 0.002265 0.163707 150 149 157
0.600990 0.002061 0.163323 29 28 36
0.600805 0.002250 0.163678 154 153 161
0.600805 0.002250 0.163678 154 153 161
0.600807 0.002249 0.163675 12 11 19
0.600961 0.002092 0.163381 32 27 34
0.600961 0.002092 0.163381 32 27 34
0.600934 0.002120 0.163435 80 75 82
0.600753 0.002308 0.163792 187 186 194
0.600988 0.002063 0.163325 32 29 36
0.600998 0.002053 0.163306 204 207 216
0.600975 0.002078 0.163356 200 203 212
0.600849 0.002207 0.163599 43 38 45
0.600983 0.002069 0.163337 137 140 149
0.600976 0.002076 0.163351 6 9 18
0.600953 0.002100 0.163397 28 25 32
0.600979 0.002073 0.163346 188 191 200
0.600979 0.002073 0.163346 188 191 200
0.600788 0.002268 0.163712 17 16 24
0.600889 0.002166 0.163522 19 14 21
0.600788 0.002269 0.163714 156 155 161
0.600801 0.002254 0.163685 157 156 162
0.600982 0.002070 0.163340 183 186 195
0.600939 0.002115 0.163426 87 84 91
0.600994 0.002057 0.163314 25 28 37
0.600994 0.002057 0.163314 25 28 37
0.600926 0.002129 0.163451 32 29 36
0.600965 0.002087 0.163373 25 24 30
0.600965 0.002087 0.163373 25 24 30
0.600801 0.002256 0.163690 64 62 67
0.600801 0.002256 0.163690 64 62 67
0.600881 0.002176 0.163541 71 68 75
0.600987 0.002065 0.163329 0 2 14
0.600998 0.002053 0.163306 28 31 40
0.600998 0.002053 0.163306 28 31 40
0.600975 0.002077 0.163354 179 181 193
0.600975 0.002077 0.163352 28 31 40
0.600973 0.002079 0.163356 187 190 199
0.600915 0.002140 0.163472 133 132 138
0.600975 0.002077 0.163352 39 42 51
0.600975 0.002077 0.163352 39 42 51
0.933393 -0.147642 0.765468 148 48 46
0.933210 -0.147455 0.765856 159 145 145
0.932999 -0.147225 0.766357 184 152 157
0.932999 -0.147225 0.766357 184 152 157
0.933087 -0.147320 0.766152 165 148 158
0.933213 -0.147460 0.765846 144 45 48
0.933213 -0.147460 0.765846 144 45 48
0.933057 -0.147286 0.766226 144 39 36
0.933279 -0.147531 0.765690 153 45 42
0.933279 -0.147531 0.765690 153 45 42
0.932032 -0.146164 0.768715 40 31 34
0.933170 -0.147414 0.765944 168 143 146
0.933170 -0.147414 0.765944 168 143 146
0.931217 -0.145266 0.770644 83 80 87
0.931217 -0.145266 0.770644 83 80 87
0.931584 -0.145669 0.769762 36 34 39
0.933272 -0.147527 0.765699 152 38 38
0.933272 -0.147527 0.765699 152 38 38
0.931896 -0.146018 0.769038 95 92 99
0.932649 -0.146840 0.767202 46 47 52
0.931728 -0.145828 0.769417 75 70 77
0.931728 -0.145828 0.769417 75 70 77
0.932511 -0.146689 0.767532 168 168 176
0.932733 -0.146933 0.766998 149 150 155
0.932733 -0.146933 0.766998 149 150 155
0.933622 -0.147913 0.764854 154 142 146
0.933622 -0.147913 0.764854 154 142 146
0.933484 -0.147761 0.765189 156 42 50
0.933484 -0.147761 0.765189 156 42 50
0.932525 -0.146692 0.767563 34 34 42
0.932362 -0.146525 0.767893 195 194 200
0.932362 -0.146525 0.767893 195 194 200
